-311.5830450861437,646.7166146436266,128.51188117750132
-371.3586381740786,504.1893931093397,-88.35991015138038
-357.1232933504494,690.3415077740481,70.00736930230767
-338.55643988859435,678.896697781568,103.93655357223636
-317.8696224968144,542.9508887783147,63.34154033271835
-486.30486569804947,650.5120793161561,21.92368361765469
-478.8873065181473,538.5443829230243,-22.338218186356045
-481.6584441643911,657.7225995313016,83.49801021679968
-305.2990283275266,632.1204913457033,109.23873543296253
-306.51577125480514,564.4936769586587,147.63438290653698
-477.7365452727852,662.904924521473,-20.739817018255764
-466.66841270080647,525.4659624872304,59.65336468228685
-359.07079673980564,691.2403437109139,92.33514694064519
-498.0895546181015,619.4535157445249,141.3861731377163
-450.29901583569523,686.4292138455538,25.920941383932842
-335.2315933068183,676.1909016512249,100.78468814041341
-490.70225384847333,642.108207594329,8.927932321062116
-430.65652506705743,504.81503547926866,21.959983699366205
-498.45077115414364,617.5341284115988,-116.37712089290088
-480.648068233457,659.126044094051,-64.40297958086424
-304.92955815243164,568.9901453259109,105.87267804933416
-323.73977519787945,535.3132307722047,-104.80260847201856
-362.395126045236,692.6599884245962,-57.15320777555402
-464.593230280909,523.6605305108985,28.936399159431687
-497.67642612941427,578.5683463403991,-92.3207851247181
-321.67467564942467,662.1702787944301,-87.5086331621834
-308.6249844481612,640.6276572411113,-144.39557725967995
-300.469049760947,609.6741896048792,0.7113124908308066
-344.1503750709472,517.0492953900684,87.45618575778857
-487.3717753719559,648.6433229575497,143.65236150527755
-404.08198520548444,699.9166522496736,71.36550017501386
-340.66926487669,519.5023983604007,83.0971369475975
-384.5919149809507,501.1941756977568,120.42603702502203
-481.96463286379014,657.2869876979414,-143.9730599843114
-360.7427606652804,508.02788922822015,74.18688619294372
-495.5005611171262,570.3412268238546,-135.07313491150393
-310.1652735654859,643.928600324117,-144.9101936892084
-376.7908958399909,697.2694067222055,-22.178691335631186
-397.21844555428703,500.03869271130185,-23.21002574265411
-458.6555116815548,680.9909312786004,-94.71452837781699
-439.76052845005495,508.2443441668451,-20.08660105029014
-359.5168843187189,508.56085441816504,-32.67504700384761
-498.09333861160735,619.4344261563996,-111.98266577678687
-429.97086261266713,504.59692146344213,-14.1563263505588
-319.5220508952474,659.3573896654228,-131.20254491404094
-419.50434818519034,501.920540367155,-6.425194842518664
-407.70523513764806,699.7027048352929,-119.3492828339523
-499.32321305077016,588.3853820867272,111.19196318157913
-417.2799445855303,501.5042969712841,-76.83231789164554
-439.7450838934419,508.23765311249247,108.85915715571872
-302.30900264616776,621.3651359933311,130.10320652903454
-427.5495587592983,503.8697663990773,2.260067817068773
-346.56696047835266,684.5275711675076,-24.444208174277776
-333.8834904815004,675.0240439398608,79.84135311984178
-499.89488910195024,604.5837900594445,-86.25713529501087
-300.0801304693394,595.9975416334753,11.846652590164638
-487.24098996253986,551.12250343608,56.507675330381176
-306.964159652968,636.6651389049814,-22.064731639079383
-395.47710456465956,699.8976647218591,-26.935252855693577
-432.14184591329706,505.3062740130801,13.573583363415196
-474.65250898951166,666.5357265051707,21.02081125501425
-375.2096428403198,503.1215287491824,-89.3281082709632
-421.47011241496244,697.6679797727427,50.04635365006206
-493.9404254068907,634.281138755479,109.60002642393755
-384.0577024015875,698.7210370047015,-9.634431033633945
-369.5791272197584,504.73945990448954,15.397369850257235
-363.912130439136,506.73872362787404,123.8659830140137
-428.02867283842596,695.9916324421899,83.58493241368643
-331.21528226130164,672.5855536977407,88.0534757951576
-497.8690875624585,620.5339158392118,68.66826314810626
-391.4678474450811,500.36465299513634,-2.247413939683838
-480.71560069319827,659.0338191610214,-125.36453621446508
-410.9287087415449,500.5989772424726,114.72997357166253
-408.9383882286728,500.40027502109496,84.172229266389
-319.14372733068,541.159000943011,24.67269582918442
-482.3927445793345,656.669530090557,-54.848549822648025
-307.496866533352,637.9890813109702,-99.36280356391967
-442.0485575570663,509.27007766249284,-64.48055901501874
-497.4439077588509,622.4651917571285,-101.13190037036935
-306.02284878073584,565.8196686863402,-82.84048073604411
-362.5793498693484,507.2654598124336,38.09712830947845
-311.4296175861515,553.5749274737816,27.303486068329477
-490.1575734852388,556.7378694092193,0.43479739901073344
-480.2979010957191,659.6007305292654,9.800240562565364
-337.55839858563894,521.8908045566333,-127.51309874119488
-379.25935420564963,697.825485493471,137.62067435996528
-497.868873165308,579.4650623241058,143.29494824303418
-308.890302304135,641.219206515508,-28.13285842546692
-496.8999643421604,575.2937880182321,103.54138472483538
-392.28446293774294,500.29809185456406,26.968429022546417
-354.3110402553915,511.0476590670288,-138.4505858042326
-454.74727469259807,683.6823512679538,-31.581743700937963
-498.7167643159888,584.0312667070452,58.04902313099447
-461.05969547237817,520.8058487713869,94.41475705116764
-308.94781631378254,558.6539016838188,-39.762792541974775
-304.5259205457131,629.7439095002072,139.32771417747557
-477.41552023379705,536.7004168502623,41.444924259503324
-364.6009483301532,506.4750988192154,-18.0385143480855
-498.9760223023909,585.7260023400373,60.71783871843192
-357.9081140928532,690.7098293504058,97.53902239383117
-449.87168589652373,513.3235040749888,-118.12755378621368
-416.8112287679467,698.5767852352254,-121.30358329524415
-302.73128013588376,576.7880174048815,16.213378559760685
-487.2637699095775,648.8368146091483,124.52983430699527
-446.35507206242573,688.6070386261008,-99.72087563788025
-427.8340069949527,696.0482589878907,-104.58467095532271
-317.9527560217475,657.1686081304514,19.24069948258338
-359.5658307845896,508.5391998730628,123.90540381507225
-355.87871634069944,689.7402492099033,-111.52965650447186
-329.01497789490065,529.5647344241639,125.03264313281272
-316.48544648182366,655.0029031111964,57.48730956408815
-490.7296821562329,557.9509241976835,-82.41974551779315
-446.8243722303311,511.6400647055726,-113.3430826897885
-425.2570777550061,503.24215782026977,104.51367928546017
-300.58417477234616,610.7932244628095,29.267475677490523
-473.38974084733036,532.0739671527793,-97.20132909993163
-301.6663621852152,618.1795399862242,-91.57931877724764
-327.6352967985261,530.982975067288,123.82697184913076
-416.333382525423,501.34291401385195,55.38386664978185
-371.9978506269671,504.0006269265765,35.10840981971876
-423.3648628782771,697.2321098335283,114.5034167670043
-493.26818353120126,636.0700144273627,-18.789997753814447
-300.25347043711093,592.884535140998,-35.0043239862825
-356.8072762245121,690.1908455047096,54.769596038794816
-436.28733693329775,693.1838461230772,-32.45694179720482
-303.8905289791427,627.6219039910536,-105.46280672664048
-386.116491101294,500.96844855976684,134.13399365986174
-351.6819409905752,512.4479287877109,35.30066636278903
-496.54999599236896,626.0403201568939,-89.4558724781383
-495.14982675169193,569.2345897293241,-94.24458996099818
-419.5812354884728,698.0641382807445,-9.816427498549075
-448.1211394019446,512.339541738258,60.63007476726665
-335.0610162723617,523.9544321316388,-107.9282926800866
-396.53365504320175,699.9399042056799,-81.52996524066774
-479.59021633259744,539.4574739201416,-27.395590541069524
-307.1074567655034,637.0266851260977,74.95914411298057
-423.89119403852095,697.1041237405175,-132.77496680609045
-499.9901517197245,598.5965902000951,38.89171012916515
-433.39779960728475,694.2580870874837,10.199702294338095
-490.59366556676406,642.3413244853926,8.92341230285004
-330.5477112288655,671.9470609854978,-146.22915612633142
-386.158803049075,699.0374740538434,67.88964883013128
-311.00825551290814,554.3878370043236,-75.94792408934289
-444.85735803736276,510.6254094839711,-93.35872260037684
-302.8118416954098,623.5470143619507,-102.59597912103212
-437.99601879587124,507.49971591576707,148.56708711875888
-318.23232321917624,657.5677603686885,12.805382485557715
-498.70420547343485,583.9538222040901,17.07675192016876
-325.1447005103313,533.6925031515138,-11.712116672205866
-390.9960654194303,500.40617909694987,-113.16185321772761
-379.1680201597719,697.8060765798134,78.7947720091883
-406.4487921959463,699.7918487613769,-73.5818202216465
-376.53092555990133,502.792991276734,-43.11248115708621
-325.94781453212875,667.2032278051583,-1.2370103740251466
-466.0526398470105,524.919717839894,-48.43308579666072
-436.73908437787196,693.0066647024588,46.862177520369016
-438.4613764563749,692.3077598096769,135.7964108628588
-335.46874746551316,523.6081323285634,-62.8376776219652
-468.28896160634383,526.9478424498817,-26.747095762550828
-359.6712708984364,508.4926581685781,46.264561693616315
-301.8226313930545,580.9946246178628,18.731650325639322
-495.2337640884637,569.4954072713167,136.30555865247197
-387.20702804409046,699.178323581997,133.7023682990092
-313.77396232079315,650.6465243244193,109.8562288008116
-309.61056635697764,642.7755804834214,-79.02342490138255
-468.43931600449207,527.0886838355165,30.114287476052198
-499.61180512834864,591.1972572983246,32.71802703697762
-394.2176040414923,699.8326795041535,27.95602144262756
-466.06977738052296,675.0652017707814,-112.6576052861397
-319.9800868034032,540.0265601119203,-123.89137622066141
-382.9469554736571,698.5352407638129,-19.259988942801357
-344.7689044821277,683.3638176182909,-56.68165611986403
-496.16949026995167,572.5877921134091,-0.7582302344397078
-487.977396516735,552.4607772240944,23.874584999466833
-334.6068260776894,675.6553554242291,137.9096225616796
-342.1616738117935,518.4234836258214,-125.09702679926224
-460.41978443704676,679.6834339657925,132.02906518519927
-318.4301962860181,542.1522072844394,-49.05187971840826
-366.01563706500076,505.95180450480586,106.01172440323052
-374.5345368555331,503.29679329599355,-26.60864243828229
-481.95095259344686,542.6934439263131,127.44342378401433
-306.64477189494744,635.8441262336468,-127.6957452280105
-489.4414128291334,644.7239719963302,59.4263548628399
-353.9017503671862,688.7409228078612,23.846000668640727
-301.36982567149636,616.4951117586085,95.10900534867392
-485.141944643236,652.4485391824037,-145.2667522647762
-441.00767247869294,691.2051029157922,119.93013444777762
-429.36543828227184,504.4088339097692,-136.76911889889863
-496.95887872550804,624.4739828448951,42.20281458635492
-300.4088541717267,609.0334751126908,80.20105345722436
-464.3990534214306,523.4966542011153,77.67299343712736
-319.9771575506641,540.0304686834326,126.83340350764519
-340.25286727550866,680.1890274987919,91.5473646799262
-337.27587988289537,522.1174939056592,91.22757556111338
-408.60880049951436,500.3712463494621,-113.6656826231605
-469.214477380119,672.1758693816499,49.19317629131132
-470.7310693710403,529.3097190157721,132.68980263283692
-320.93972732837716,538.7670571906866,-123.69306540124305
-490.94896435510066,558.4273421256876,-1.7348797838856456
-325.0509900659075,666.2015551924522,19.391079618057006
-387.86614827918487,699.2611184826026,-100.00381164624477
-372.51822508958634,696.1496336330688,34.42392844937996
-300.35671550125096,591.5610513509469,147.15641588216357
-315.22060937391876,653.0325836167759,-92.02937050762546
-406.5350718167518,699.7862357058823,-82.24098234611368
-368.8983861997573,504.95953693809906,-64.00049260864785
-302.48881611232787,577.8286442267373,112.7982582650609
-310.4431182888182,644.4923020102286,-119.2230748465119
-453.281553030212,684.6231416734731,-97.71381938005203
-426.59976614741043,696.3973673961228,64.0907597027387
-499.99753257520143,599.2975194867294,50.16048349269877
-495.82934527691685,628.5786036012513,50.69107005041752
-378.2608538660529,502.39154992846727,24.554125607020865
-304.872331480102,569.1661439004395,-135.6889856532492
-339.9151470590185,679.936289925544,-23.648254979843216
-454.5438531727934,516.184917341419,133.11994872778513
-315.2558352608604,546.9111448356101,51.18684827603127
-479.85055342078834,660.1987468174698,-17.519046966030913
-379.32451434692007,502.1607221356919,145.66355681439
-404.0508016823248,500.0820786558764,10.604443041288278
-495.5740645263561,570.5789498842764,9.091623291109187
-336.68895028307065,522.5938569379632,113.43811386361062
-417.750202058704,501.58795639315696,71.31963724138421
-300.69455980816804,611.7656087095604,80.118304205009
-392.48288348227027,699.7170645339045,-95.04871977446997
-322.31827241527776,662.9726067385892,-46.59888976474177
-350.246904577381,686.7446222878846,-88.63656543593004
-336.7171755927731,677.4292201629597,21.81797291290539
-454.01612135638345,684.1561562430963,-111.82729636447365
-496.5037066888961,573.7886552175682,-79.18123923462822
-484.1400151806072,654.0412605830693,-50.81227770380073
-318.900220241616,541.4950794963225,145.16435222770326
-472.30222831402295,669.0824708650964,-93.91708822096349
-497.90955225822097,620.3400977528304,-33.106935184766584
-304.87623640050293,569.1540991594183,-98.15715410610576
-360.8484496180759,692.0171511333167,68.18000360050266
-346.9949928449239,684.7966344644075,-25.332968587363567
-398.3089303962501,699.985700395583,-111.55044516492346
-491.08971355752414,641.2633503730393,94.099584772181
-413.56496593720016,500.92431327958104,-127.22984883233423
-483.83945758517814,545.493620998794,30.032792280716905
-301.8669396398887,619.2328485762965,-92.25134461178774
-363.2970541043612,506.9790681481753,109.60537108645781
-346.8354755024694,515.3032861620271,65.17276818648472
-378.07458212752925,502.43322260565566,-94.17866556978986
-302.1381564074818,620.5684119142317,-28.261500753309875
-361.14174856278265,507.85860704741873,62.139625543245614
-380.810019889773,698.1414523194409,-16.06091474444179
-300.9524539554294,586.2310631293235,146.9866076353843
-499.66889277985496,591.8690829522262,-112.85522581379196
-307.98090061213236,639.1469711196887,77.65018100517153
-309.26286534678053,642.032991743671,105.25814198607938
-358.0187250634706,690.7610740058949,99.14781177901938
-485.77338539218977,548.5906004862643,110.22476806723296
-350.45246983198274,513.13779732099,79.54279307124861
-474.5558265912596,533.3559550950422,-91.33188428658192
-478.75527654716336,538.3752775585981,128.52470872305145
-426.5877263858188,696.4006888234354,-43.787684704119854
-479.21953722893073,661.0267557816575,-113.53444620618089
-458.09962979619684,681.3906199604406,-102.94901621547484
-329.0657506083386,529.5136022821312,54.072288806751345
-337.22106077580514,522.161675314246,-101.61050523690614
-399.97657732699196,500.0000027431081,-14.5688192799567
-476.8169156270434,664.0246942479829,83.42550567350847
-494.18960154065394,633.5904593837721,-83.85473217020719
-483.06886408938067,544.3262735314044,-142.37717339163737
-499.9985688660783,600.5349997534566,-84.3333998744336
-482.8838264047301,544.0511723044123,-129.87114478870132
-303.79129147647234,627.2742443384761,23.673951054182737
-497.4812039502438,577.6972002562239,125.65629408440043
-300.328009799191,608.092859161621,115.11982780681421
-424.0098342986193,697.0748569762163,134.1596533106138
-495.9192455567349,571.7245984674524,73.80673611222224
-494.3471949023347,566.8547618192165,-6.950022268970741
-343.94342254592664,517.1890096416214,-2.5496044893750707
-300.00640879170464,601.1321295280682,103.88798720489632
-321.0551052564656,538.6183773924779,-149.32291036277778
-437.91554524378904,692.5332990272485,-2.4516076862947216
-496.08082362330236,627.721387625223,-22.277085211561797
-352.7278179371051,511.8788288604122,-3.940233162168738
-456.3901485059629,682.5842064288048,28.883080549173826
-303.8472931403341,572.528979568295,10.242579229575568
-425.4398671268119,503.2900565579208,22.89277191974844
-328.7943903677864,670.2122578821163,22.868738875948196
-302.2974436035298,578.6877858120146,-103.6133956832043
-421.23320664358624,697.7197571406662,-15.639633019885025
-473.3838366714731,532.0675886238788,-34.428608665283235
-305.00014865318434,631.2254422560022,115.93066563980204
-346.2803432630049,684.3457081306418,76.81248719778523
-345.5041574542607,516.1536933119295,-101.92112447318733
-300.440368996432,590.6255733810868,-12.919097600386522
-400.1424285463473,500.00010142950555,-96.07523645864784
-333.9712767394544,675.1013162639797,137.72844338662628
-350.2277451373416,513.266369579692,22.560902459920214
-308.7974701758423,641.0133948079604,0.8904248282674416
-479.63122203131627,539.5114186164099,51.937047454115685
-304.1360519624716,571.5376833926321,37.9529884817876
-314.6743306465786,547.8508854400134,-125.11536040984186
-428.21845285735515,695.9360147094783,4.740325413236633
-320.5164519600753,660.6824982263007,-32.93866102792302
-450.6866310461898,513.7975323254176,117.68940140273463
-456.3844410986854,517.4118967284702,59.25415494612588
-404.27183778138266,500.09128465459304,134.90067100571434
-378.41137625643864,502.35814767806306,-149.58885893008681
-394.4360374042273,500.15490838186963,141.80473516094867
-444.93242606270337,689.3368741792531,72.61715572187677
-303.5196971589768,626.2973603942381,137.87788502024387
-471.3274118776271,529.9114822896122,-52.25726597029431
-488.43765446837773,553.3225828463932,-133.32752064478728
-390.69567663286523,699.5662069513537,-119.46665868724159
-492.30887482980853,561.5412997144373,60.79694255318532
-496.9031743891213,575.3063815265656,17.637120886931996
-388.7835645981515,500.6310331296729,143.47434813631622
-499.91897928142635,604.024621641583,-70.05331040931301
-455.2151962229286,516.6256507907649,-64.77973646338683
-334.20390687796356,524.6947934743134,8.175994201119295
-401.31316725849257,500.0086224129739,-87.4618166711908
-414.9858466801677,698.8707459225352,119.81574971349266
-499.0838744952023,586.4949707509015,-141.40183597385703
-429.4074382145971,504.42174631405607,122.39048041447461
-430.6897071020078,695.1742710925225,10.101360033917103
-420.8604811846091,697.8000016602585,2.3594018552966816
-415.2254695344516,501.16587088735247,38.136430663662594
-425.5232049059136,696.6879827658574,-51.235226487819816
-323.931995734175,664.9127008143586,110.03711288483271
-306.3477533913122,635.0607573384478,-65.37906576707503
-498.1131841319803,619.3339881939587,37.078443913617235
-301.90762078819864,580.5607319950528,7.207510137917353
-305.0971421237366,631.5190032665653,109.75863704992929
-311.94976499486654,647.4041782498207,3.0341130268996324
-489.65745101964524,555.7107069749368,43.25665428975819
-484.9105077756776,652.8223974207589,-135.86434049824967
-349.816052639215,513.5039224745425,20.10043912624812
-493.4856656997748,635.5025394679021,-68.18988352828195
-392.75007093732705,500.26315360617116,-64.68488824702835
-304.6515898577725,630.1443308658455,-102.14140535022929
-499.8100573177241,606.1605566495756,101.75992229379995
-300.009096361625,601.3487733616913,-93.37020744681404
-487.0894383583708,550.8529784582672,39.75892983870344
-362.8316987175935,692.835970290509,17.788952189913545
-499.4189993549048,589.2360524309418,47.240671862756216
-425.00659293994795,696.8228811259804,83.8179661002502
-495.81492902542504,628.6268995151897,74.25437487597506
-396.56152899837457,699.940867102357,-143.83943789506336
-338.19055768560366,678.610386341649,-71.42844826293239
-444.917912317826,689.3441724624953,68.56195333370886
-365.8572323000432,693.9908049427538,30.643259634606835
-472.99558698172996,668.3494278044279,57.753539996473165
-328.91549373708165,670.334863114654,-88.08635316998738
-302.6619356904448,577.0805489492243,13.38070625672998
-310.48587197362605,555.4217442728191,-3.098260064398005
-494.16646963439854,633.6552521398057,69.5659422844983
-360.9671343919271,692.0675589033516,-97.82786716671316
-325.3709669049772,666.5620569040801,-125.03319984837663
-326.7479661035036,531.9254854587523,-84.33495374781876
-370.02464328491834,695.4016665986691,-70.63094135885778
-319.1725199158088,541.1194559872306,2.2529636202270638
-350.9193734427533,687.1268735623406,-27.187889970118917
-464.7249760691753,523.772200131155,143.12942910384243
-401.0596340365773,500.005614279058,-146.83069861817077
-402.1088045507928,500.0222377557561,67.66087927836071
-476.5470265206593,664.347126826654,-82.07275838942373
-493.66606813488016,564.9761841006439,5.759339732871268
-499.14438523670367,586.9466143841494,58.788836074554496
-444.8857055592767,689.3603571862037,64.54926058984566
-346.9112840097671,684.7442519260651,95.28409321317466
-498.8377197097986,584.7978566456143,85.14993599840778
-334.3563459030072,524.5618751771071,-55.889176356776645
-470.26720078097634,528.8486086263525,64.05427229079677
-441.82066573726445,690.8351909630403,50.25226806544748
-414.82726300163296,698.8946523927376,56.23691635056403
-320.9909530518985,661.2990252806086,-137.21850599451594
-460.83640198832796,520.6341875042247,-124.493502953302
-336.42208397203586,677.1871012121918,44.31380257544154
-345.3109331040484,683.7204034990881,-109.35021421391295
-498.801044512844,615.438704711569,-33.825908933264856
-346.3383093101432,684.3825986344705,-54.01823678524012
-498.71985449910346,584.050381582124,89.89028688868211
-499.7465933257207,607.1145709577806,14.110016676064987
-496.8023487913517,574.9140424046143,-128.48195107351896
-318.10311962970314,542.6161957899855,-127.43334780470015
-302.8386649313399,576.3425494256975,127.4851545654139
-373.58203596561674,696.447349244435,-132.37660636026737
-456.38219481926586,682.5896368036714,125.13215856241732
-306.0001184003294,634.1177704319599,143.2926731014697
-377.4416730658578,502.5776109616873,40.504442682605855
-473.27630532166165,531.9516122277197,56.17840109045798
-457.59783056623843,518.253502129676,-43.99485501065705
-300.0047166595305,599.0287587018522,-48.029263886658626
-333.26575040859854,525.5249039512366,50.208006299545445
-380.9409280952472,698.1669586883971,67.4133184122139
-347.91531013395957,685.3650108742357,-144.9830131413484
-465.1219359870313,524.1110452483301,-82.1078703091316
-379.19843321165155,502.18745060499714,-125.60275293401624
-401.0091693277933,500.0050922433155,-98.8863485117067
-319.8476814549654,659.7963697213744,74.36410585942713
-411.3154995664128,699.3577348250377,148.66982399463967
-376.5247626115996,697.2055205714071,-81.80764136556485
-302.0317620298679,579.9444683683637,30.010456210673738
-498.66205966122544,616.3033120378896,-30.82491597756389
-309.8214450407564,643.2183783298573,60.33031258300983
-310.1008069948226,643.7965192340426,2.500504198916218
-444.90052497984857,689.3529118525747,-95.56808459284522
-335.8162286401218,676.6840498019169,117.67028137671747
-499.80352201734354,606.265540115076,-39.59052934662347
-349.41126718491375,686.2599565972753,116.66135186026037
-339.06548340960137,520.709491817151,-121.3657414530147
-353.4109612646555,511.5157558108983,-54.017290081584875
-473.5663376467233,532.2652676594327,61.74570418516342
-490.04097621847444,556.4957174335202,-103.42504074923411
-338.08476597447134,678.5270895650922,-23.5599535310332
-366.8631376488268,694.3501370084824,-11.029123738211808
-396.8411986237904,699.9500974179898,-39.313888136251194
-300.0013452823298,599.4812952128804,96.94046589218755
-423.89555402519784,502.89694908073767,-24.626144318832672
-316.22946277837906,654.6122430742505,113.26475221257846
-336.6780224918327,677.3972038542424,-89.59115655071572
-475.59390534098384,665.4641999515642,4.055599170991002
-407.5440181329214,500.2849670791302,15.987245379163738
-464.2347755626138,523.3586690589168,23.857151387465507
-450.4400096913463,686.3470058678174,98.62863715605491
-306.6155012009165,635.7677981436373,-114.06608802595909
-306.08095262361405,565.6603357629668,-29.21817737098513
-466.84030516669503,525.6200725650859,107.05749097217767
-432.9064307128116,694.4307514411641,-85.03392515954621
-317.74171578817084,656.8645291770356,-80.82888960953608
-398.71438099758586,699.9917355773997,73.27920656043383
-473.7895268951907,532.5084766760749,110.27650111245663
-464.9172131216076,523.9358465469852,44.140157522326746
-467.54273461412777,673.7426538771524,-1.9606548493290177
-374.0703719044005,503.42021750478057,19.21864997685242
-406.40258001288726,500.20517563932196,-129.8824632245159
-302.15677361688245,579.3432081159247,-113.74370174203133
-369.0505006503531,504.9098927858097,147.00862133863382
-375.0930214705423,503.1514459553828,-146.49870709663108
-378.08070737996894,697.5681536723815,25.065881605576237
-423.5124915628751,502.80348390757143,71.74226977657239
-367.3413708377708,694.5167389473631,-99.59767046150216
-493.3844875512111,564.232172489824,-96.88188534732848
-454.51563855815243,683.8334369604211,-83.18298436690354
-391.1366060397137,699.6064267379609,46.15248808636554
-411.2043971569498,500.6296750314797,-39.09473101522494
-499.1923755441592,612.6835576202612,-41.11816827626737
-459.8186904079338,680.1356617111244,86.14989041254228
-498.2105987271487,581.167095347372,141.85651016842468
-487.3896321022062,551.3887646624667,-98.63496145072511
-416.9292894354946,698.556578467443,12.185655786077803
-381.4602539044971,698.26636156241,-107.36120569078355
-472.1898696393542,669.1998751548949,57.0528684411473
-356.49217188066876,690.0392630597271,64.85636265813997
-349.8667175030018,513.4745471778612,27.046736301225422
-320.651916595375,660.8595239877266,-30.466088900707177
-324.4643954328013,665.5314614720883,-69.80439689928127
-471.2168153189756,529.7991081550745,-133.5685309417781
-499.82944771482653,594.1620749445789,46.66477611260771
-498.4415437317524,617.5858598797295,-123.64700500328414
-463.52360731896886,677.2318024727214,-28.65568009547195
-467.47908030852966,673.8009059613431,63.588989413562246
-453.4249758688256,515.4673320342047,-92.8423404352111
-499.7553843551247,606.9902283339916,64.28269450246415
-364.4612976622702,506.52807567964464,-134.73430182782835
-301.9709940200414,580.2436342769922,92.98169965068698
-499.2713014033849,587.949742007811,-144.04922821404713
-301.9586586502874,619.6950599478432,24.235262747982972
-438.94139547519967,507.89371509802334,139.51241771204224
-499.177435471467,612.7998552063293,-121.27897284101553
-495.48073076364363,570.2774487494664,-54.4775304762957
-492.5558974317627,637.8603466782995,-67.22159383813097
-433.1537861682006,505.65580853749805,81.12726554803339
-402.034230533655,699.9793073897591,-131.01721441459597
-498.34242999353285,618.1319183476842,-1.4464154934643147
-310.11391283313435,643.8234107964068,-106.6367598412577
-314.3228711471446,548.4303423364938,22.644151629879502
-354.73256050277774,689.1675889623876,-68.52350094684691
-301.8034991316754,581.0937254537781,-0.0018879311662942655
-417.832183789046,698.397221613792,-27.5220629409541
-442.6073765159277,509.531157482645,94.68296529179011
-499.89254684275693,595.365446594588,62.536852587511675
-416.944240809292,501.44599093189197,-57.73223400459965
-302.326573745275,578.5546787465702,-74.56129472129176
-411.1415324163277,699.3773930801967,61.563514220901226
-358.43497616305143,509.04754652328563,90.45316091178566
-310.7270223188885,645.0592438457168,41.62481055504611
-491.6367500929533,559.9661888848735,110.9439214589666
-306.76581212962515,636.1577960079378,-60.64663473245132
-499.18526547486726,587.2609610770631,-149.6650390134532
-300.2072766654612,606.4352443214075,-125.0367638915217
-463.922945096868,523.0983934488829,140.69711328432595
-366.36301473153077,694.1729962465291,29.05627666293637
-410.76526271177937,500.581143042447,-132.53416657645124
-329.99998690147333,528.5857285536981,115.52969125245181
-315.42369544108914,653.35586853532,128.9433153614952
-483.85735201429827,654.4788446385389,-132.67591277486716
-372.36086830806374,696.1045181004297,42.33744018323577
-345.89190264648744,515.9029501065418,46.4303429654357
-401.56364897846055,699.9877742620174,-85.13521437228381
-494.97509710349186,631.3006538299488,-60.39433333161509
-300.13654091299935,594.7760609518343,112.43899414518813
-499.91855279836795,604.0351959902526,-86.13278976635817
-330.0022659106742,528.5834947483423,-35.47024997162728
-460.7314588770708,520.5538553316609,-27.096657717061234
-332.87709550304874,525.8749995487814,-123.43404452738703
-498.33653423725156,618.163866169014,-97.43462646899692
-301.3816802180933,616.565838445234,-47.049579934323674
-301.8368407864477,580.9213686755371,108.71894763954901
-434.6229589197079,693.8149812964018,48.20663448274959
-484.67236159059667,546.7966995133643,-1.729562764075979
-339.17097352850357,679.371465518346,55.81731636275461
-477.0567985960362,536.2642189180212,-111.96055346995598
-304.73969117198686,630.4215969664901,87.64219205996523
-491.43947776057695,640.4823653813972,89.76798918767878
-493.978891631643,565.8244542444763,-120.75722458712397
-499.9720173617802,602.3655326283777,75.2002069761933
-393.80924355428186,500.1918112846957,-54.297451470179396
-463.36110103577874,522.6348212983785,-135.3965911139817
-437.65893284886096,507.3619690586799,101.44346781467763
-301.75356532224794,581.3549450762354,-109.75232914901336
-434.8681179568714,693.724139634065,-90.98610987806273
-343.74287229051987,517.3251212164224,30.58100557703756
-496.76089896823567,625.2453645420084,136.99132719800724
-499.7423661690079,607.1735898271054,-14.721720420841166
-493.92138279880703,634.3332761786573,79.44427691665607
-329.3202435472716,670.7415862684956,-110.59113164082012
-493.4073398488866,564.2918936044684,-126.74587867163521
-436.06534741816813,693.2699882899469,120.7561561173253
-378.7918612529154,697.7252006950326,-90.39583322891323
-408.3465839950907,699.6510638960413,80.83701581621347
-462.2212881211267,678.2848089002441,-98.18036208149672
-487.5958587425488,648.2386311078106,33.37483175056383
-300.2790701554168,592.5343351982749,117.0619744877389
-383.94604901318434,698.7029414846028,-53.713414072895006
-456.2712436956057,682.665271625694,149.12767221392238
-470.9776711372102,670.4426731458854,-29.216956935817038
-423.81959224033795,502.87828756913297,-28.044911325085835
-311.880861858768,552.7240283733219,-31.925315703795718
-312.39960977286995,551.7695984667913,-30.061506764810005
-485.75838282647,651.4344220827708,57.641189743133225
-303.1038807922081,624.7212880422801,91.69618640353431
-300.5559109708554,589.4703676624696,-27.397481399682647
-301.45846022658316,617.0166077431463,-57.21533100209666
-497.4390344928155,622.4863193321607,66.95134913905514
-375.7196850452517,502.99244201765396,-79.23040380262371
-398.25318382513615,699.9847420022237,53.58542017785123
-349.057352131314,513.9485814868397,-50.40063352458213
-494.37706128792604,633.0601013709131,-21.505813751727686
-305.70276442358573,566.7128949494518,14.311270626878809
-300.73321165898983,612.0873790567307,75.47976828595023
-491.23178341389723,559.0517192653983,128.33687647330743
-458.2695773520454,681.2690368788384,-145.8626119654661
-302.57764619947716,577.4415208853576,-57.684270781740295
-361.36324490016204,507.7655099469014,-57.831187966426384
-494.669882250195,632.2120069963704,-140.55132497242582
-418.29221989572267,698.3127392115921,114.95029793380775
-301.3629319926358,583.5461610889552,-23.942400227997254
-300.4747794147952,609.7329577963907,-26.900083392832144
-478.53959606224066,538.1006312602457,-142.34689168549326
-491.2000485307499,558.9810879229,125.39050054207047
-497.39301231506425,622.6848220666978,101.05263580561308
-446.5143266036735,511.4764583819265,115.19542762481495
-486.65071143546027,649.9164723085336,8.87902135531047
-484.3075720936656,653.7794876107181,109.54698732051719
-399.5716015923972,699.9990823698116,-73.21631615625019
-303.80139716610466,627.3098665834615,11.825086893764421
-402.0412733298298,500.0208361547621,138.9564398596982
-378.0629220889699,502.4358436067559,-45.05472799818796
-496.16565659895633,627.4256538826626,68.30786986003463
-468.24262548947104,673.0954449080365,-138.69594206819582
-302.1939027484368,579.1681172138051,135.3640740607886
-467.36617333625736,526.0960170895415,-26.43340381460966
-480.1881801598117,540.2517300446483,-132.04741258693238
-300.9806126751373,586.0299987899493,-138.1588366349852
-319.9915940160285,540.0112096145955,-56.68366517999286
-300.0122331267478,598.4358786171898,-77.47082855603524
-323.4683581959501,535.6345760304758,-14.841520515495773
-499.9909252368928,601.3471712103952,-91.75195080866769
-498.2712383496813,581.4861210649922,-130.55488410282078
-325.1229606123303,533.7170536824339,67.86427353738748
-421.4531325060961,697.6717108771822,6.61674388857827
-463.8922157552142,523.0728606674526,-42.09841140685293
-303.8735522968503,572.4372343192193,85.82863562824588
-366.724165705925,694.3012134176081,20.04119818292571
-442.7578352227107,509.6021707834335,-101.47321091046379
-317.07756193906397,655.8915849303831,-129.94647397042542
-300.77192668095176,612.4011880636331,-95.81550741187665
-499.9891477965313,598.5267984104628,73.3206478709279
-315.85656729577966,654.0359392696225,40.330997141390185
-450.69656189498414,513.8033723859916,-137.39839133876754
-301.723685350377,618.4869137199345,120.32872178625013
-394.0154159760494,699.8207631410434,25.94152809258881
-350.4896704401195,686.8834119200669,100.23963079789692
-308.04867389974993,639.3058981376266,-37.18366888831825
-304.5463549550929,629.8094221285969,-51.16694309838715
-451.52819854059067,685.7020697250741,35.337848173768606
-337.16450908791165,677.7926801301824,-10.609784586257547
-313.4440382049285,650.0805898300941,-7.8782716423855845
-347.2468113301517,684.9535230885888,83.6921693743881
-372.2199933529246,696.0638913988416,-123.63430247661715
-406.8752860424194,699.7633722457041,-69.28335563680466
-300.00301508298344,599.2234644206679,84.2801342914974
-488.29759237250084,646.9418276297342,-70.40839983727648
-358.3331087552974,690.9058313531212,73.58766057311036
-307.4027322822053,562.240947956827,49.97168809471145
-417.96722006426097,501.6273462634945,-74.32904145271023
-316.50823624646455,655.0374907251759,-48.51645527607603
-485.6385491800307,651.6336992122341,-143.6303805887319
-482.4796349876177,656.5429908327226,122.46709578531767
-324.6724657621513,665.7705297655853,-80.70309857191955
-363.19441314769125,507.0196323062919,-94.60218159536187
-495.9511258095376,571.8329721858644,-57.71939487740697
-331.51557956882004,527.1310480505903,37.58756603752229
-346.6450804259836,684.5769032138813,139.80795068997645
-499.9226855919621,603.9315269412649,-141.37841908311412
-476.9406557667814,663.8759382723858,20.206789087858937
-432.5481334012394,505.44515341826667,-35.139251932782784
-325.001930807133,533.8540279582955,-87.11802309258016
-313.50894101486426,549.8074037767543,142.75249392960086
-498.2839463693472,581.5537026461329,64.72016835840145
-494.8343781331363,631.7244499416668,-23.898761968801736
-391.3376292603824,500.3758897998611,-13.51556007835967
-439.7125488436276,691.7764319656332,-101.1284928670284
-499.3823354861928,588.9026402550055,146.06321633578028
-398.2481423506117,500.01534620364845,-101.41849987508154
-395.37043999426265,699.8927783883964,122.59807207006395
-411.0747637678597,500.61514397310776,144.2071370416395
-447.46086905334664,688.0196904601526,86.00564561081589
-410.9130131253239,500.5972528320947,-54.40022402003292
-458.4314734576171,518.8472864928609,62.52528037344504
-357.0705689371497,690.3164655454364,-114.40686519007176
-433.0683561256833,694.3741692580389,-139.3282773293957
-397.59136824858155,500.02901174297585,-76.7394216981923
-335.737113837375,523.3822379467431,-86.80647807246565
-367.71110247570465,694.643684927551,29.129930925895223
-301.2081930352789,584.5022944715906,146.81680608880924
-424.2710444636047,697.0098778508958,121.58694345657165
-439.9255335019265,508.31602225804914,87.3669640037073
-378.65496516685414,697.69539133435,51.45447951235644
-470.99210012402546,529.5718684048743,132.61009945723657
-458.48847144998655,681.1116434764092,-73.88753228879088
-319.7163824292152,659.6199693873451,54.81818558927566
-452.0958384319155,685.3582076784403,-95.42401244296516
-480.91537638943043,658.7596959127326,-83.5896047973248
-415.4906338256869,698.7929160602039,-122.87392034357289
-372.5710170336017,696.1647071093602,83.67067809959735
-422.32639703673163,502.52419789835926,133.61968001099154
-304.93777793494826,568.9649563226538,-44.39427017395717
-317.71462137393223,543.1746846523077,78.0182687889216
-376.81295753902464,697.2746681408522,89.09631500030062
-462.44564044768555,521.8940335884743,93.46407906399861
-300.49005601626527,609.8879243703609,-69.68907244150091
-442.1166619066516,509.3016715157286,88.23187016167256
-484.4103084473819,653.6180923552661,142.78593777842576
-458.39529692944086,518.8212509549302,-103.5859605676156
-497.687219056739,578.6175952484132,5.134171629812045
-496.5883743926026,625.8976047578619,-145.58192446144415
-409.0647342169955,500.41169449390543,14.729623824672785
-454.73058595728105,683.6932671173296,114.98231755150994
-331.49516286852867,672.849758335842,-53.589141026957364
-452.14810663041106,685.3262853689488,-81.26642239510997
-397.82236551949933,699.9762867287506,-138.6357422353584
-477.59818297259716,663.0755261519976,82.34509333275389
-453.72493411483583,684.3423467444234,119.92934622193843
-406.7845022421566,699.7695871963303,130.88990978027795
-316.91585055699477,544.3490870575121,76.87759634102386
-312.24217492365943,552.0566570015146,-82.3210060981296
-420.5486510044291,502.13400518107335,135.26303467881053
-342.561463934614,518.1414966257912,-117.60284951853947
-499.9733439471229,597.691212432842,28.005541959780174
-326.12765290238383,667.4008630084907,70.09496260574076
-499.68459269428223,607.9361186593358,27.29879312748227
-329.5124876670901,529.0668582035318,-146.97306852847123
-399.84225132243375,699.9998755766962,-13.487478922089252
-340.9926001037096,519.2650834057577,-41.659521921031796
-497.7411964476454,621.1342971726714,-13.416058656262834
-386.8076016102526,500.8740163997038,-68.359620796119
-302.5332847710884,622.3660327838052,47.251705620308144
-368.86039859969986,504.97197663515027,133.1290988169677
-384.8153548737057,698.8404095114367,121.70296290690521
-423.13410242124036,697.2872720614755,-124.29923959167783
-367.35432825432963,505.4787848349698,58.65579117857814
-324.1136888147527,534.8749834956196,132.06308108688273
-407.18999905973527,500.25881535934616,121.20687944771788
-398.2280655454857,699.9843000089959,-4.577173820187909
-423.15919982907445,502.71869931339836,-127.34011071947948
-311.42599908103915,553.5818315612527,12.830865485053152
-498.67134098565253,616.2470449033997,-148.8995150353442
-471.21636546561035,670.2013482054912,119.75701970415537
-437.49006565156867,692.7064991111253,-120.50177077234574
-466.91880640742124,674.3093086295794,-85.52116289272573
-312.9867063688202,649.2817078788274,-141.1984368718485
-306.70037977924665,635.9886213498543,107.79521238777482
-308.9642269347228,558.6177813257028,135.8197814083395
-495.77430683766653,628.7625129250645,-22.131796964263785
-421.3923503583981,697.6850415680085,144.1290399396654
-382.2019267553454,501.59660275794386,-89.42081800118447
-499.9789632013075,602.0510770808519,62.29813853890812
-427.32019685381863,503.8043304307902,-130.15170005666087
-489.21658413582946,554.8292006365344,-48.80716139027854
-480.3879812868604,540.5208232687827,-92.3367230615082
-495.04489093643,631.0880798197978,-42.226055816177194
-465.78121119857286,524.6817933481634,-48.04363026591278
-495.71383382105796,571.0368852628918,-25.35194712634403
-301.18389684712736,615.3420258662546,-46.095320965301184
-421.07403083229565,697.7542082187741,-42.10634253372025
-497.5030952953887,577.7930999953089,99.27065706867862
-311.71667944345467,646.9686630798691,102.34806300706344
-442.6812252614735,509.56597426753933,-58.90333640544529
-364.54170800790536,506.49754265794206,139.5939857914846
-302.33640458930154,578.5099527349195,-123.5893916349619
-495.2155391596079,569.4385683819429,5.198548525405215
-419.16125541161625,698.1470646074084,-45.82688367801275
-358.69094456998846,508.931004510425,-48.85296783590036
-499.71520862148793,607.5416954044255,-78.2867923741999
-380.28988387386437,698.038315582706,43.82902506195887
-491.0901239093122,558.7375554991448,-134.48605600655557
-312.57188394610694,648.5419872200036,-123.14247976464486
-305.3225152377866,632.1896548459416,-22.778196415712898
-391.72526874100424,500.3429439397721,137.65920714296618
-357.23238935765613,690.3932048328019,126.13087739059785
-319.38416871034485,659.1699902440237,62.60453578246404
-367.0130981150449,505.59732893592286,132.9117711108787
-421.31937560387007,502.2990060241908,-110.34888223414303
-476.79430999313973,664.0518067869874,37.5244052456616
-408.41104845287197,699.6456434768899,-10.893323761529984
-331.9827312198128,673.3051918194324,-61.55279666137193
-305.8478167878834,566.3048015825397,110.97569543672552
-363.8165436643024,693.2242322982746,-46.98258774317986
-459.8031102616379,680.147289430363,143.67098886660938
-300.02696558744856,602.3221520938134,-77.84919693738661
-302.2962878172317,621.3069149739414,-94.45982743979087
-467.96274027924255,526.6442508474202,-121.50826094070884
-429.13104266552364,695.6628577516867,-98.65067687795671
-418.3720376531187,698.297854668718,-33.53997537920243
-499.83093593745275,594.1875796906794,104.37754120020386
-499.3411888364094,611.4598516817998,-7.518834487216196
-329.21047197744804,670.6317401905428,122.8369237078806
-494.55945994665046,632.5347281316104,-52.015940623538626
-393.16592289561396,699.7662036469831,88.52891847934947
-333.23394232405013,674.4465818047527,142.23588139679066
-393.47702978411775,500.21297248859094,-111.6315576106812
-414.83883201722165,501.10708284025253,-67.73037858075784
-497.1551395006846,576.3171186591978,-30.977882927770565
-300.84754426767097,587.0080593347825,-83.15946501047652
-435.1685855220999,693.6118079751413,-141.07277423378022
-464.1374317444255,523.2771882082704,-11.55005230531168
-407.28022146051603,500.2653602027568,38.14607300949976
-489.85900582649725,556.1210862500731,93.49024174663924
-300.0322142577271,602.5380728490377,120.39214608057176
-300.02326031918597,602.1567389259573,-8.153382975607201
-406.92548519721277,699.7599000339475,85.26011341859635
-329.559019184047,529.0206493289313,52.49570254655072
-345.6119708924649,516.083718565478,-42.74462391342274
-455.48923822975144,516.80778617754,34.4387201192923
-422.5885359659501,697.4153891483013,125.6192760587432
-309.25163133274106,557.9912677621514,-37.56019984151912
-482.73410739852676,656.1699872972127,-101.19198588147154
-445.21099557791166,510.8037787860155,-93.5220644769697
-498.1695275030278,619.0458360234533,31.407863202108757
-395.76152579658935,500.0898636952835,-115.21142355830725
-303.8766778253787,627.5736637774882,28.23794747901016
-334.973645316199,675.9708707106646,-33.02836258635365
-314.29528523133797,548.4762009705972,-141.50981963753517
-431.701828552775,694.8419425486976,-71.42581006412753
-352.41264005400916,687.9513682290998,103.19602671272827
-484.965037489775,652.7346414073437,33.06708059044749
-495.8069886082199,628.6534628592151,97.83774095642784
-386.8211790593091,699.1277896384925,91.01023557009313
-462.9138996943545,522.2707183537073,130.89177813806435
-356.47341038513827,509.9698050846306,105.83880316378776
-426.3445811903766,503.5325804123296,-16.95134224523946
-472.8613491442094,531.5074909140743,11.063651292241161
-497.122221930052,576.182485281421,140.5764101092297
-302.0472944725649,620.131256291041,148.37622804419004
-475.36220065171545,665.7308049009791,-107.35591197366136
-499.9999400235751,599.8904770280758,-119.13163667921732
-488.38800510739514,646.771364670438,137.0428900168272
-428.1487972556486,504.04352438183037,-113.44665865143622
-317.9590164919743,542.8224080164629,85.93795771855574
-302.43780656203404,578.0541937588771,2.0295752140849004
-324.92203809999506,666.0552771316676,-95.34835802228196
-494.8568663553306,631.6571461955582,122.01370394498656
-489.882262618147,556.1687455502076,-139.96315523478634
-347.63772527155015,685.1950244161145,88.86439398207185
-445.3288210535649,689.1364009924895,-57.39101209314447
-469.5686333797938,671.8345686258909,121.18059196728854
-460.15035147380473,520.1129846747435,111.8867469844933
-340.5793057804802,680.4312196753867,119.3751916402166
-320.4292304108332,539.4319174235494,50.29329692866136
-396.80864877794704,699.9490634142087,-85.1104760566829
-493.12786917470095,563.5692439965928,-56.691227764805305
-352.2104943419339,687.8416936822013,131.0791149327177
-300.5136327801947,589.8776120699682,86.8888874105889
-386.3576390971117,500.93494062488355,-26.19755509473204
-492.4959549451746,561.9934437395304,31.20874289051787
-337.19200970795373,677.8148851793422,-71.29170767593803
-495.22478463255175,569.467388063185,-70.85292952145558
-433.06073250832617,505.6231598006539,128.33739226011437
-446.2066731193522,688.6845158933696,49.0123548071648
-320.80808188846373,661.0625917056894,123.67720371624387
-356.58640486746407,509.9152634589619,-45.0839988327849
-329.9912888527915,528.5942553886123,-13.603756669778619
-493.3982314670118,564.2680764744676,68.15745303262563
-349.00179414497853,513.9814961792008,69.17107996849737
-431.72386655685864,694.8345732878186,-135.98992894214032
-308.8962838042906,558.7675747095609,42.079836226761415
-498.2036099288551,618.86931363196,51.94357971243193
-444.66906700415905,510.53115372947997,-135.89850500466795
-451.6113916694237,514.3480049856086,3.1013675155900557
-463.67730177592307,522.8948689221137,105.92137742042857
-315.196311075604,547.0062801379797,9.990011836971775
-301.64687130576635,618.0737952864226,-13.430498520707062
-499.9899948522443,601.414542133749,68.26138923427254
-447.20279168584375,511.8416398912568,-121.22611516343477
-499.28146217297115,588.0337445791554,-12.527358432249258
-395.56157658352583,699.9014534307489,-40.1118039873658
-352.10811013971477,512.2140849246856,137.22712323982006
-483.3896682690979,655.1920576348609,-47.83039941174954
-485.01906073655874,547.352499475537,110.5319239143555
-499.04862955311467,586.2388596529989,79.90684172273248
-349.604432701039,513.6270482349023,142.7745169956694
-480.95602553858544,658.7036790073323,100.93164732939258
-311.0335065557634,554.3386044427396,-24.867342930101785
-303.00090640839835,624.3141078883783,50.374685901734864
-358.74300972014123,691.0925943919024,130.04879650658756
-332.82480490172406,525.9223841939513,-22.013296174681045
-499.8332083927787,605.7732574863776,145.9726965507341
-300.03145860786947,602.5081331563307,75.55145968476216
-491.0836936005021,641.276636976501,30.192972335296332
-497.31353655454507,623.0233708054927,-7.933780545287306
-327.4045625494804,668.7742863384833,-136.4571755145452
-408.3827000369557,699.6480322941222,-64.34977025282265
-388.9704686710369,699.389885997839,129.8497531795715
-435.99930273894967,693.2954993679194,-4.632863256376311
-377.54890601065176,502.55284314726543,-87.69482432276811
-301.39047081103524,616.618085122261,-15.486085387041499
-418.50358851792254,698.2731764621425,50.93766726963861
-452.6301473741705,514.9701958877178,93.53155530157943
-438.1760457982357,507.57386988945706,-98.10872140933648
-402.0830652252542,699.9783018422864,-89.67918391920371
-488.28698345268754,646.9617775730953,121.493013010651
-456.6566451967472,517.5983947058681,21.983242837461148
-337.9064060953748,521.6138685990469,97.19648313377621
-303.07933311040057,575.3751278241836,50.01917171963959
-359.2318061445607,691.3123998686121,145.1452561998454
-483.35569966441335,655.2433465084812,23.433267867636374
-398.5688136670419,500.01024199609066,51.48411650212344
-335.1814580351039,523.851745801069,-147.89234847581312
-396.5903366907705,699.941854075846,72.21044473923268
-481.26517694073067,658.2749604615201,102.73083386216572
-323.87106062841815,664.8412260075179,-102.43676604343936
-302.7809748960074,623.41924759315,79.4696277596477
-483.5409609013435,545.0372139381545,55.374591220074734
-454.66197861880687,516.2619077511489,108.24087410559036
-363.273600407296,693.0116743906755,52.520401944029004
